0.059500 0.102161 0.079458 4.336864 2.099473 3.919156 
0.060000 0.102123 0.078739 4.429261 1.607105 3.927779 
0.060500 0.102104 0.078380 3.865421 2.380209 4.254962 
0.061000 0.102072 0.077781 4.627028 2.101356 3.685625 
0.061500 0.102041 0.077183 4.425952 2.001475 3.963314 
0.062000 0.102015 0.076704 4.161729 2.471092 3.976911 
0.062500 0.101984 0.076105 4.505490 1.758833 3.932025 
0.063000 0.101958 0.075626 3.792511 2.587983 4.258894 
0.063500 0.101939 0.075267 3.797037 2.953721 3.793464 
0.064000 0.101901 0.074548 4.482290 2.408722 3.588813 
0.064500 0.101876 0.074069 4.369732 2.539276 3.681612 
0.065000 0.101838 0.073351 4.671605 2.331814 3.438567 
0.065500 0.101806 0.072752 4.290251 2.670334 3.703671 
0.066000 0.101781 0.072273 4.352823 2.599439 3.560435 
0.066500 0.101743 0.071555 4.682471 2.318717 3.481763 
0.067000 0.101711 0.070956 4.595470 2.467755 3.488634 
0.067500 0.101673 0.070237 4.876350 2.460570 3.073458 
0.068000 0.101635 0.069519 4.906458 2.411594 2.936184 
0.068500 0.101578 0.068441 5.158024 1.772367 2.844349 
0.069000 0.101540 0.067723 4.853438 1.790177 3.484180 
0.069500 0.101515 0.067244 4.294490 2.506474 3.452768 
0.070000 0.101464 0.066286 5.138927 2.208343 2.831836 
0.070500 0.101426 0.065567 4.812146 2.621195 2.428494 
0.071000 0.101350 0.064130 5.599661 2.019780 1.962605 
0.071500 0.101287 0.062933 4.309578 3.209274 1.082041 
0.072000 0.101072 0.058862 4.913054 2.096711 0.993641 
0.072500 0.101009 0.057664 4.386497 3.602193 1.298167 
0.073000 0.100964 0.056826 2.214687 2.409678 1.564692 
-0.048750 0.099186 0.017298 -2.984345 0.824098 0.532572 
-0.048250 0.099353 0.019842 -5.960186 1.665880 1.034274 
-0.047750 0.099511 0.022259 -5.950617 1.591156 1.222804 
-0.047250 0.099653 0.024421 -5.760384 2.181196 1.121410 
-0.046750 0.099803 0.026710 -3.540894 -0.438198 3.174654 
-0.046250 0.099820 0.026965 -4.591345 1.599140 3.165192 
-0.045750 0.099945 0.028872 -5.673031 2.169267 1.569907 
-0.045250 0.100028 0.030144 -5.382625 2.411930 2.153351 
-0.044750 0.100103 0.031289 -5.311068 2.496006 2.240427 
-0.044250 0.100178 0.032433 -4.707415 2.219878 3.201741 
-0.043750 0.100212 0.032942 -4.802697 2.103266 3.415418 
-0.043250 0.100262 0.033705 -4.793059 2.232350 3.387580 
-0.042750 0.100303 0.034341 -4.339742 2.196440 3.900581 
-0.042250 0.100337 0.034850 -4.878597 1.917751 3.383367 
-0.041750 0.100387 0.035613 -4.558771 1.841480 3.858310 
-0.041250 0.100420 0.036122 -4.326972 2.174336 4.000641 
-0.040750 0.100453 0.036631 -5.119088 1.255776 3.155748 
-0.040250 0.100528 0.037775 -4.385125 0.327142 3.886919 
-0.039750 0.100553 0.038157 -4.078526 0.903426 4.675135 
-0.039250 0.100578 0.038538 -3.122954 0.538980 5.375022 
-0.038750 0.100595 0.038793 -4.003393 1.046086 4.504480 
-0.038250 0.100637 0.039429 -4.021781 0.244190 4.525849 
-0.037750 0.100662 0.039810 -4.275797 1.537441 4.277359 
-0.037250 0.100695 0.040319 -4.014005 1.498096 4.576083 
-0.036750 0.100720 0.040701 -3.633341 1.576880 4.866267 
-0.036250 0.100745 0.041082 -4.244091 1.045875 4.486250 
-0.035750 0.100779 0.041591 -4.025039 0.855800 4.702085 
-0.035250 0.100804 0.041972 -4.153454 1.370227 4.490979 
-0.034750 0.100837 0.042481 -4.031352 1.063671 4.637065 
-0.034250 0.100862 0.042863 -3.224197 1.360281 5.143175 
-0.033750 0.100879 0.043117 -3.441666 1.708748 4.927040 
-0.033250 0.100904 0.043499 -3.127831 1.890229 5.090142 
-0.032750 0.100920 0.043753 -2.760411 1.948261 5.297435 
-0.032250 0.100937 0.044007 -1.971848 2.037360 5.534850 
-0.031750 0.100945 0.044135 -0.773746 1.115775 5.959386 
-0.031250 0.100945 0.044135 -0.883080 1.274231 6.040334 
-0.030750 0.100954 0.044262 -2.141156 1.780706 5.588331 
-0.030250 0.100970 0.044516 -2.759737 1.950333 5.297024 
-0.029750 0.100987 0.044771 -3.379242 2.345357 4.658803 
-0.029250 0.101020 0.045279 -4.153678 2.811003 3.781506 
-0.028750 0.101054 0.045788 -4.056952 3.076613 3.672206 
-0.028250 0.101087 0.046297 -3.836337 3.362807 3.664298 
-0.027750 0.101120 0.046806 -3.136048 3.195965 4.273930 
-0.027250 0.101137 0.047060 -2.426243 3.593573 4.526259 
-0.026750 0.101154 0.047314 -1.755174 3.389950 4.846745 
-0.026250 0.101162 0.047442 -1.501783 3.109248 5.209091 
-0.025750 0.101171 0.047569 -2.579731 2.903626 4.831146 
-0.025250 0.101196 0.047950 -3.442562 2.595953 4.554980 
-0.024750 0.101218 0.048324 -4.145621 1.862846 4.275402 
-0.024250 0.101243 0.048803 -3.761550 0.944752 4.909896 
-0.023750 0.101262 0.049163 -3.149672 0.652355 5.312030 
-0.023250 0.101275 0.049402 -3.367813 0.811711 5.198872 
-0.022750 0.101293 0.049761 -3.067123 0.930679 5.385069 
-0.022250 0.101306 0.050001 -1.923590 1.000186 5.830101 
-0.021750 0.101312 0.050120 -0.828918 1.210100 6.047159 
-0.021250 0.101312 0.050120 -0.961047 1.402708 5.911228 
-0.020750 0.101319 0.050240 -1.179431 1.375690 6.000337 
-0.020250 0.101325 0.050360 -0.718728 1.296864 6.057234 
-0.019750 0.101325 0.050360 -1.461125 1.206869 5.778352 
-0.019250 0.101337 0.050600 -3.089658 1.529671 5.172818 
-0.018750 0.101356 0.050959 -3.434641 1.925326 4.889315 
-0.018250 0.101375 0.051318 -3.371436 2.313154 4.760716 
-0.017750 0.101394 0.051677 -3.872149 2.507221 4.237143 
-0.017250 0.101419 0.052156 -3.925695 2.493378 4.218345 
-0.016750 0.101444 0.052635 -3.891898 3.142398 3.787001 
-0.016250 0.101469 0.053114 -3.600563 2.953184 4.191833 
-0.015750 0.101487 0.053473 -3.352310 2.791743 4.521791 
-0.015250 0.101506 0.053833 -3.867951 2.804014 4.016812 
-0.014750 0.101537 0.054431 -4.614044 2.137253 3.618783 
-0.014250 0.101575 0.055150 -4.167135 2.865001 3.573424 
-0.013750 0.101594 0.055509 -3.998600 2.998414 3.565705 
-0.013250 0.101637 0.056347 -4.480126 3.023769 3.160203 
-0.012750 0.101669 0.056946 -3.884483 2.865268 3.942600 
-0.012250 0.101687 0.057305 -2.929461 2.746125 4.805733 
-0.011750 0.101700 0.057545 -2.929751 2.747082 4.804688 
-0.011250 0.101719 0.057904 -2.927993 2.747360 4.805405 
-0.010750 0.101731 0.058143 -3.655153 2.328279 4.284828 
-0.010250 0.101762 0.058742 -4.826293 1.886060 3.493343 
-0.009750 0.101806 0.059580 -4.168200 2.334634 3.848100 
-0.009250 0.101825 0.059939 -3.742317 2.743544 4.221065 
-0.008750 0.101850 0.060418 -3.650141 2.823218 4.245264 
-0.008250 0.101869 0.060778 -4.297589 2.405015 3.632785 
-0.007750 0.101913 0.061616 -4.145741 1.523944 4.157974 
-0.007250 0.101931 0.061975 -3.678564 2.237351 4.551376 
-0.006750 0.101950 0.062334 -3.723102 2.242336 4.506403 
-0.006250 0.101975 0.062813 -4.239291 2.004432 4.172566 
-0.005750 0.102000 0.063292 -3.764117 2.045652 4.582736 
-0.005250 0.102019 0.063652 -2.309235 2.068506 5.291007 
-0.004750 0.102025 0.063771 -1.647543 2.142604 5.663526 
-0.004250 0.102031 0.063891 -1.963498 2.130642 5.481357 
-0.003750 0.102044 0.064130 -2.671207 1.723341 5.397788 
-0.003250 0.102056 0.064370 -3.482297 1.107089 4.953224 
-0.002750 0.102081 0.064849 -3.690952 1.143512 4.881762 
-0.002250 0.102100 0.065208 -4.172767 0.974471 4.577713 
-0.001750 0.102125 0.065687 -4.229436 1.005579 4.527122 
-0.001250 0.102150 0.066166 -3.146817 1.279248 4.970253 
-0.000750 0.102163 0.066406 -2.079432 2.571659 5.202536 
-0.000250 0.102169 0.066525 -1.484085 2.656151 5.489297 
0.000250 0.102175 0.066645 -2.506251 2.628227 4.908592 
0.000750 0.102194 0.067004 -3.163907 1.672512 5.093268 
0.001250 0.102206 0.067244 -3.817582 0.771243 4.208738 
0.001750 0.102244 0.067962 -4.845759 -0.366853 3.952733 
0.002250 0.102275 0.068561 -4.307883 -0.379597 4.506261 
0.002750 0.102300 0.069040 -3.217840 0.399922 5.039504 
0.003250 0.102313 0.069279 -2.833791 1.298750 5.409700 
0.003750 0.102325 0.069519 -2.874210 1.567412 5.354398 
0.004250 0.102338 0.069758 -3.308918 1.099358 5.047620 
0.004750 0.102357 0.070118 -3.549357 0.506118 5.069143 
0.005250 0.102375 0.070477 -3.988747 0.397943 4.641979 
0.005750 0.102400 0.070956 -3.288265 0.046509 5.298001 
0.006250 0.102413 0.071195 -3.238087 0.594611 5.273877 
0.006750 0.102432 0.071555 -3.698713 0.288239 5.054494 
0.007250 0.102450 0.071914 -3.741110 -0.185759 5.001402 
0.007750 0.102469 0.072273 -4.014597 -0.490631 4.573159 
0.008250 0.102494 0.072752 -4.090118 -0.939453 4.555358 
0.008750 0.102519 0.073231 -3.771429 -1.226978 4.861853 
0.009250 0.102538 0.073590 -3.653449 -0.913024 5.012897 
0.009750 0.102557 0.073949 -3.872587 -0.993458 4.813745 
0.010250 0.102582 0.074428 -3.924746 -1.036379 4.768564 
0.010750 0.102600 0.074788 -3.924434 -1.037116 4.768589 
0.011250 0.102625 0.075267 -3.839136 -0.849401 4.858052 
0.011750 0.102644 0.075626 -2.962313 -0.908323 5.338807 
0.012250 0.102657 0.075865 -2.725142 0.133332 5.627772 
0.012750 0.102669 0.076105 -2.791313 0.912165 5.551286 
0.013250 0.102682 0.076344 -2.549288 1.247950 5.593970 
0.013750 0.102694 0.076584 -1.867488 1.480857 5.662946 
0.014250 0.102700 0.076703 -2.159482 2.449985 5.332437 
0.014750 0.102713 0.076943 -2.455874 2.410566 5.241588 
0.015250 0.102725 0.077183 -2.452013 2.873346 5.000278 
0.015750 0.102738 0.077422 -2.603912 3.129515 4.778887 
0.016250 0.102750 0.077661 -2.815517 3.264075 4.464621 
0.016750 0.102769 0.078021 -3.871528 3.522812 2.876437 
0.017250 0.102832 0.079218 -3.906084 4.549572 1.782895 
0.017750 0.102876 0.080056 -3.277903 4.941907 1.989826 
0.018250 0.102913 0.080775 -2.916777 4.945514 2.305137 
0.018750 0.102938 0.081254 -3.538615 4.548790 2.452003 
0.019250 0.102976 0.081972 -3.660333 4.215408 2.850759 
0.019750 0.103001 0.082451 -3.306159 4.281900 3.144828 
0.020250 0.103026 0.082930 -3.213773 4.393534 3.050435 
0.020750 0.103051 0.083409 -3.128441 4.451525 3.033287 
0.021250 0.103076 0.083888 -2.736229 4.637857 3.210273 
0.021750 0.103094 0.084247 -1.770634 4.660821 3.763029 
0.022250 0.103101 0.084367 -2.110778 4.263053 3.826379 
0.022750 0.103119 0.084726 -2.614975 4.325583 3.665524 
0.023250 0.103138 0.085086 -2.250337 4.425415 3.838162 
0.023750 0.103151 0.085325 -2.009357 4.440149 3.965598 
0.024250 0.103163 0.085565 -1.549051 4.430429 4.148311 
0.024750 0.103169 0.085684 -1.094504 4.421969 4.327426 
0.025250 0.103176 0.085804 -2.046454 4.239878 4.030323 
0.025750 0.103194 0.086163 -1.840826 4.167482 4.211169 
0.026250 0.103201 0.086283 -1.140392 4.179205 4.539307 
0.026750 0.103207 0.086403 -1.754076 4.070555 4.430140 
0.027250 0.103219 0.086642 -1.625652 3.730677 4.726902 
0.027750 0.103226 0.086762 -1.235876 3.624099 4.966715 
0.028250 0.103232 0.086882 0.155379 3.329031 5.030801 
0.028750 0.103226 0.086762 -0.312485 3.569872 5.017566 
0.029250 0.103232 0.086882 -1.233778 3.624499 4.966938 
0.029750 0.103238 0.087002 -0.405709 3.408527 5.210287 
0.030250 0.103238 0.087002 -0.769712 3.340448 5.237362 
0.030750 0.103244 0.087121 -1.283732 3.312433 5.182491 
0.031250 0.103251 0.087241 -0.513088 3.333714 5.236679 
0.031750 0.103251 0.087241 0.000000 3.362318 5.291108 
0.032250 0.103251 0.087241 0.000000 3.362318 5.291108 
0.032750 0.103251 0.087241 -0.562508 3.917693 4.844326 
0.033250 0.103257 0.087361 0.261486 3.594786 4.785106 
0.033750 0.103251 0.087241 1.225568 3.949997 4.614683 
0.034250 0.103244 0.087121 1.522092 4.200694 4.201230 
0.034750 0.103232 0.086882 0.792081 4.597359 4.122455 
0.035250 0.103232 0.086882 0.572584 4.257307 4.525726 
0.035750 0.103226 0.086762 0.352389 3.788317 4.907783 
0.036250 0.103226 0.086762 -1.192707 3.455829 4.746300 
0.036750 0.103238 0.087002 -1.121910 3.343585 5.113319 
0.037250 0.103238 0.087002 -0.611943 3.013868 5.297451 
0.037750 0.103244 0.087121 -0.422792 3.067442 5.443413 
0.038250 0.103244 0.087121 0.000000 3.007890 5.516431 
0.038750 0.103244 0.087121 0.000000 3.007890 5.516431 
0.039250 0.103244 0.087121 0.432005 2.907002 5.512165 
0.039750 0.103238 0.087002 0.683404 2.628126 5.465054 
0.040250 0.103238 0.087002 0.095848 2.635784 5.672362 
0.040750 0.103238 0.087002 -0.055961 1.952355 5.949550 
0.041250 0.103238 0.087002 0.161974 1.875985 5.982545 
0.041750 0.103238 0.087002 -0.104272 2.495802 5.748029 
0.042250 0.103238 0.087002 0.000000 2.569477 5.713432 
0.042750 0.103238 0.087002 0.000000 2.569478 5.713432 
0.043250 0.103238 0.087002 0.700378 2.341767 5.761994 
0.043750 0.103232 0.086882 0.701672 2.285310 5.699074 
0.044250 0.103232 0.086882 0.105542 2.204993 5.878673 
0.044750 0.103232 0.086882 0.848514 2.069884 5.798995 
0.045250 0.103226 0.086762 1.999577 2.328238 5.404476 
0.045750 0.103213 0.086522 1.154971 2.719568 5.411876 
0.046250 0.103213 0.086522 1.403422 2.625092 5.323110 
0.046750 0.103201 0.086283 1.716518 2.815205 5.295148 
0.047250 0.103194 0.086163 1.450923 2.580512 5.538962 
0.047750 0.103188 0.086043 2.087883 2.390921 5.360141 
0.048250 0.103176 0.085804 2.339991 2.552071 5.236373 
0.048750 0.103163 0.085565 1.801581 2.391199 5.383412 
0.049250 0.103157 0.085445 1.613440 2.328521 5.592866 
0.049750 0.103151 0.085325 1.996151 2.226552 5.481096 
0.050250 0.103138 0.085086 1.864916 2.009332 5.587593 
0.050750 0.103132 0.084966 1.532994 2.271984 5.642162 
0.051250 0.103126 0.084846 1.371530 2.521702 5.589127 
0.051750 0.103119 0.084726 1.494936 2.119758 5.704154 
0.052250 0.103113 0.084607 1.401813 2.052992 5.749295 
0.052750 0.103107 0.084487 2.559958 1.610970 5.211621 
0.053250 0.103088 0.084128 2.798829 2.205754 5.128896 
0.053750 0.103076 0.083888 3.259872 1.833776 5.001825 
0.054250 0.103057 0.083529 2.231181 2.506855 5.138323 
0.054750 0.103051 0.083409 2.650388 2.131058 5.109788 
0.055250 0.103032 0.083050 3.558108 1.736198 4.860597 
0.055750 0.103013 0.082691 3.878253 1.937711 4.498830 
0.056250 0.102988 0.082212 3.755408 2.083578 4.572866 
0.056750 0.102969 0.081853 3.926115 1.970879 4.451431 
0.057250 0.102944 0.081373 4.083058 2.242126 4.215349 
0.057750 0.102919 0.080895 4.503152 1.765219 3.931296 
0.058250 0.102888 0.080296 4.219997 2.066001 4.154545 
0.058750 0.102863 0.079817 4.232996 2.036416 4.163143 
0.059250 0.102838 0.079338 4.431321 2.078913 3.907496 
0.059750 0.102807 0.078739 4.179601 2.493690 3.942913 
0.060250 0.102782 0.078260 4.240771 1.949363 4.189992 
0.060750 0.102757 0.077781 4.598642 1.813706 3.778877 
0.061250 0.102719 0.077063 4.354980 2.108005 3.891161 
0.061750 0.102694 0.076584 4.576410 1.875264 3.860662 
0.062250 0.102663 0.075985 3.717041 2.639221 4.182962 
0.062750 0.102644 0.075626 4.293003 1.847427 4.072484 
0.063250 0.102613 0.075027 4.590146 1.995115 3.782175 
0.063750 0.102582 0.074428 4.421598 2.564978 3.640715 
0.064250 0.102550 0.073830 4.218201 2.506877 3.887544 
0.064750 0.102525 0.073351 4.610267 2.197361 3.601701 
0.065250 0.102488 0.072632 4.669673 2.259793 3.538314 
0.065750 0.102457 0.072034 4.544362 2.309625 3.673258 
0.066250 0.102425 0.071435 4.702309 2.390653 3.405195 
0.066750 0.102388 0.070716 4.261696 2.792243 3.577476 
0.067250 0.102363 0.070237 4.790751 2.094040 3.178833 
0.067750 0.102313 0.069279 5.111966 2.302476 2.832675 
0.068250 0.102269 0.068441 4.728084 2.668400 3.089599 
0.068750 0.102231 0.067723 4.796877 2.078124 3.459397 
0.069250 0.102200 0.067124 5.009943 1.744252 3.197824 
0.069750 0.102156 0.066286 5.100141 2.367692 2.745423 
0.070250 0.102106 0.065328 5.384432 1.986360 2.418390 
0.070750 0.102044 0.064130 5.508356 2.223645 2.039181 
0.071250 0.101975 0.062813 5.815367 0.950963 1.067375 
0.071750 0.101756 0.058622 3.752671 4.626153 0.666793 
0.072250 0.101700 0.057545 4.609196 2.432582 0.992158 
0.072750 0.101519 0.054072 2.021029 0.350559 0.802344 
-0.048500 0.099926 0.017554 -3.116869 0.902124 0.544272 
-0.048000 0.100107 0.020352 -5.916136 1.735497 1.068293 
-0.047500 0.100256 0.022642 -5.919995 1.714672 1.141117 
-0.047000 0.100380 0.024549 -5.931603 0.603466 1.494615 
-0.046500 0.100520 0.026711 -3.316488 1.582524 3.617709 
-0.046000 0.100520 0.026711 -2.441614 0.989912 3.581681 
-0.045500 0.100669 0.029001 -5.569347 2.074458 1.822707 
-0.045000 0.100735 0.030018 -5.236221 2.541781 2.359098 
-0.044500 0.100801 0.031036 -5.217018 2.683523 2.245662 
-0.044000 0.100875 0.032180 -4.997689 2.616675 2.689304 
-0.043500 0.100925 0.032943 -4.734591 2.423788 3.254674 
-0.043000 0.100966 0.033579 -4.520548 2.666909 3.406583 
-0.042500 0.100999 0.034088 -4.547232 2.097239 3.646356 
-0.042000 0.101057 0.034978 -4.775684 1.972990 3.382853 
-0.041500 0.101090 0.035487 -4.474571 2.251007 3.748755 
-0.041000 0.101123 0.035996 -4.625281 0.706771 3.789057 
-0.040500 0.101189 0.037013 -5.401133 1.205228 2.888895 
-0.040000 0.101239 0.037776 -4.583252 1.799752 3.763772 
-0.039500 0.101272 0.038285 -3.612784 1.410655 4.708726 
-0.039000 0.101288 0.038539 -3.272371 1.346213 5.163095 
-0.038500 0.101313 0.038921 -4.200022 1.196758 4.494755 
-0.038000 0.101346 0.039430 -4.080598 1.434048 4.534294 
-0.037500 0.101371 0.039811 -3.937793 1.569278 4.615181 
-0.037000 0.101404 0.040320 -3.713957 2.009299 4.475845 
-0.036500 0.101420 0.040574 -3.577688 1.537337 4.733254 
-0.036000 0.101462 0.041210 -4.272013 1.621997 4.132954 
-0.035500 0.101487 0.041592 -3.792624 1.659846 4.710566 
-0.035000 0.101511 0.041973 -3.936672 1.572531 4.614944 
-0.034500 0.101544 0.042482 -3.612180 2.098567 4.498370 
-0.034000 0.101561 0.042736 -3.035827 1.972029 5.119249 
-0.033500 0.101586 0.043118 -3.239273 2.162397 4.804774 
-0.033000 0.101602 0.043372 -2.692543 2.364630 5.141597 
-0.032500 0.101619 0.043626 -2.200382 2.419211 5.296351 
-0.032000 0.101627 0.043754 -1.946150 2.513477 5.391473 
-0.031500 0.101643 0.044008 -1.422328 1.859908 5.563267 
-0.031000 0.101643 0.044008 -0.761694 1.365694 6.030688 
-0.030500 0.101652 0.044135 -2.031672 1.869934 5.606001 
-0.030000 0.101668 0.044390 -2.198326 2.420067 5.297262 
-0.029500 0.101676 0.044517 -2.763351 2.724933 4.681438 
-0.029000 0.101710 0.045026 -3.989044 2.962146 3.842193 
-0.028500 0.101743 0.045534 -3.704678 3.248137 3.857781 
-0.028000 0.101767 0.045916 -3.478909 3.535827 3.842264 
-0.027500 0.101800 0.046425 -2.695810 3.671993 4.086304 
-0.027000 0.101809 0.046552 -1.826131 3.702203 4.656894 
-0.026500 0.101825 0.046806 -2.422431 3.592952 4.528225 
-0.026000 0.101842 0.047060 -2.577485 2.930390 4.901538 
-0.025500 0.101858 0.047315 -3.261142 2.280057 4.740448 
-0.025000 0.101883 0.047696 -4.053430 1.582222 4.231788 
-0.024500 0.101928 0.048444 -4.412148 1.341529 4.081152 
-0.024000 0.101947 0.048804 -3.620279 1.283920 4.972278 
-0.023500 0.101965 0.049163 -3.444473 1.164414 5.112373 
-0.023000 0.101984 0.049522 -3.207264 1.292493 5.125480 
-0.022500 0.101996 0.049762 -2.179556 1.442861 5.649459 
-0.022000 0.102002 0.049881 -1.437815 1.530743 5.921818 
-0.021500 0.102009 0.050001 -1.292318 1.289474 6.001131 
-0.021000 0.102015 0.050121 -0.878357 1.031717 6.060780 
-0.020500 0.102015 0.050121 -0.718174 1.296863 6.057390 
-0.020000 0.102021 0.050241 -1.290366 1.290061 6.001481 
-0.019500 0.102027 0.050360 -1.977160 1.323529 5.790319 
-0.019000 0.102039 0.050600 -2.610195 2.105323 5.245663 
-0.018500 0.102052 0.050839 -2.797498 2.616397 4.948198 
-0.018000 0.102064 0.051079 -3.064503 2.413451 4.822577 
-0.017500 0.102089 0.051558 -3.669941 2.856436 4.135926 
-0.017000 0.102107 0.051917 -3.406378 3.104570 4.264449 
-0.016500 0.102126 0.052276 -3.656605 3.067769 4.008414 
-0.016000 0.102157 0.052875 -3.843064 2.970567 3.894212 
-0.015500 0.102175 0.053234 -3.352472 2.789230 4.523222 
-0.015000 0.102194 0.053593 -3.932518 2.740113 3.984096 
-0.014500 0.102225 0.054192 -4.497561 2.653561 3.469691 
-0.014000 0.102262 0.054910 -3.987512 2.945453 3.708198 
-0.013500 0.102280 0.055270 -4.030667 2.836313 3.759235 
-0.013000 0.102317 0.055988 -4.521785 3.029953 3.133719 
-0.012500 0.102354 0.056707 -3.890781 3.029793 3.719337 
-0.012000 0.102373 0.057066 -2.934147 2.963464 4.646277 
-0.011500 0.102385 0.057305 -2.830664 2.827122 4.822408 
-0.011000 0.102404 0.057664 -3.642496 2.765505 4.266892 
-0.010500 0.102428 0.058144 -4.357135 1.998297 4.049444 
-0.010000 0.102459 0.058742 -4.441945 2.570793 3.554694 
-0.009500 0.102490 0.059341 -3.721169 3.196754 3.780758 
-0.009000 0.102509 0.059700 -3.479130 3.194114 4.129689 
-0.008500 0.102533 0.060179 -4.197181 2.906952 3.594629 
-0.008000 0.102564 0.060778 -4.764358 1.912112 3.601793 
-0.007500 0.102601 0.061496 -4.053109 2.479801 3.925283 
-0.007000 0.102620 0.061855 -3.518597 2.376756 4.618743 
-0.006500 0.102638 0.062215 -3.930072 2.166752 4.353356 
-0.006000 0.102669 0.062813 -4.106407 2.191209 4.080504 
-0.005500 0.102688 0.063173 -3.054248 2.249824 4.977476 
-0.005000 0.102700 0.063412 -2.410859 2.544720 5.206783 
-0.004500 0.102713 0.063652 -2.075547 2.044882 5.485715 
-0.004000 0.102719 0.063771 -2.393641 1.672215 5.457270 
-0.003500 0.102737 0.064131 -3.550495 1.437905 4.941242 
-0.003000 0.102756 0.064490 -3.480881 1.035283 5.096446 
-0.002500 0.102768 0.064729 -3.415705 1.052841 4.873877 
-0.002000 0.102799 0.065328 -4.068511 1.434208 4.421365 
-0.001500 0.102817 0.065687 -3.091967 2.374311 4.808460 
-0.001000 0.102830 0.065927 -2.082816 3.027862 5.050696 
-0.000500 0.102836 0.066046 -1.783212 2.811783 5.267368 
0.000000 0.102848 0.066286 -2.704477 2.310710 5.140162 
0.000500 0.102861 0.066525 -3.533277 0.937206 4.756558 
0.001000 0.102892 0.067124 -4.588311 -0.183751 4.253372 
0.001500 0.102922 0.067723 -4.845861 -0.366577 3.952593 
0.002000 0.102960 0.068441 -3.916223 0.691690 4.183246 
0.002500 0.102972 0.068681 -2.950574 0.936377 5.448273 
0.003000 0.102984 0.068920 -2.753268 1.366255 5.449681 
0.003500 0.102997 0.069160 -2.997871 0.921934 5.312404 
0.004000 0.103015 0.069519 -3.849362 0.621369 4.884432 
0.004500 0.103040 0.069998 -3.996404 -0.220155 4.817533 
0.005000 0.103058 0.070357 -3.851399 -0.388545 4.938075 
0.005500 0.103083 0.070836 -3.760143 -0.054072 4.871383 
0.006000 0.103095 0.071075 -2.755972 -0.538086 5.592576 
0.006500 0.103108 0.071315 -3.332953 -0.705190 5.016382 
0.007000 0.103132 0.071794 -4.165391 -0.970266 4.566257 
0.007500 0.103157 0.072273 -4.245742 -1.290228 4.432228 
0.008000 0.103188 0.072872 -4.108880 -0.926959 4.365705 
0.008500 0.103207 0.073231 -3.668893 -1.018512 4.960407 
0.009000 0.103225 0.073590 -3.600898 -0.867123 5.057151 
0.009500 0.103244 0.073949 -3.654003 -0.913186 5.012508 
0.010000 0.103262 0.074308 -3.885186 -1.001995 4.809762 
0.010500 0.103287 0.074787 -3.876316 -0.583034 4.824928 
0.011000 0.103305 0.075147 -3.669139 -0.123997 5.043572 
0.011500 0.103324 0.075506 -3.250068 0.454144 5.232167 
0.012000 0.103336 0.075745 -2.109876 0.591507 5.802774 
0.012500 0.103342 0.075865 -1.975772 1.356353 5.782924 
0.013000 0.103355 0.076105 -2.111092 1.892841 5.465544 
0.013500 0.103361 0.076224 -1.533391 2.253091 5.649792 
0.014000 0.103367 0.076344 -1.370530 2.502477 5.598007 
0.014500 0.103373 0.076464 -1.827633 2.703604 5.337562 
0.015000 0.103386 0.076703 -2.078863 3.053918 5.036545 
0.015500 0.103392 0.076823 -2.101514 2.963650 4.984706 
0.016000 0.103410 0.077182 -2.920888 3.011487 4.624163 
0.016500 0.103423 0.077422 -2.574775 2.867928 4.956238 
0.017000 0.103435 0.077661 -2.772127 3.541971 4.183956 
0.017500 0.103453 0.078020 -2.804765 4.602250 2.870564 
0.018000 0.103484 0.078619 -2.984649 4.953924 2.295702 
0.018500 0.103521 0.079338 -3.442214 4.907689 1.746098 
0.019000 0.103583 0.080535 -4.252443 4.212103 1.773740 
0.019500 0.103633 0.081493 -4.013825 3.940609 2.553511 
0.020000 0.103657 0.081972 -3.518561 3.875195 3.475771 
0.020500 0.103682 0.082451 -3.519643 3.876659 3.473045 
0.021000 0.103707 0.082930 -3.261418 3.971706 3.600628 
0.021500 0.103725 0.083289 -2.840152 4.164087 3.741217 
0.022000 0.103744 0.083648 -2.671059 4.130949 3.899979 
0.022500 0.103762 0.084008 -2.597250 3.992960 4.010151 
0.023000 0.103775 0.084247 -2.144012 4.288043 4.053724 
0.023500 0.103787 0.084486 -2.008944 4.436201 3.970224 
0.024000 0.103799 0.084726 -1.914999 4.501384 3.940001 
0.024500 0.103812 0.084965 -1.664996 4.474625 4.043245 
0.025000 0.103818 0.085085 -1.452105 4.180848 4.421029 
0.025500 0.103830 0.085325 -2.140816 4.291559 4.052001 
0.026000 0.103843 0.085564 -1.648798 4.366670 4.181934 
0.026500 0.103849 0.085684 -1.451182 4.181951 4.420129 
0.027000 0.103861 0.085923 -1.993435 4.284239 4.121178 
0.027500 0.103873 0.086163 -1.625173 4.285491 4.204957 
0.028000 0.103880 0.086283 -0.756145 4.143609 4.617537 
0.028500 0.103880 0.086283 -0.389361 3.837677 4.913814 
0.029000 0.103886 0.086402 -1.233353 3.622968 4.968318 
0.029500 0.103892 0.086522 -0.733547 3.640268 5.007977 
0.030000 0.103892 0.086522 -0.499781 3.697189 5.028034 
0.030500 0.103898 0.086642 -1.136177 3.688762 4.933037 
0.031000 0.103904 0.086762 -0.783580 3.818640 4.830670 
0.031500 0.103904 0.086762 0.085099 3.772112 5.021141 
0.032000 0.103904 0.086762 0.074368 4.038044 4.792789 
0.032500 0.103904 0.086762 0.558964 4.216247 4.492373 
0.033000 0.103898 0.086642 0.459875 4.836358 3.944005 
0.033500 0.103898 0.086642 1.095027 4.682014 3.703713 
0.034000 0.103880 0.086283 1.987922 3.886878 4.113963 
0.034500 0.103873 0.086163 0.529470 3.966515 4.572083 
0.035000 0.103873 0.086163 -0.486888 3.346270 4.968948 
0.035500 0.103880 0.086283 -1.175990 3.170712 5.188090 
0.036000 0.103886 0.086402 -1.246077 2.282179 5.666517 
0.036500 0.103892 0.086522 -1.740562 2.343647 5.486360 
0.037000 0.103904 0.086762 -1.278467 2.700701 5.305345 
0.037500 0.103904 0.086762 -0.147509 2.350475 5.814655 
0.038000 0.103904 0.086762 -0.111351 2.484354 5.738424 
0.038500 0.103904 0.086762 0.000000 2.055004 5.851420 
0.039000 0.103904 0.086762 -0.425295 2.112055 5.763575 
0.039500 0.103910 0.086881 -0.067705 1.982714 5.787277 
0.040000 0.103904 0.086762 0.719539 1.325998 5.980760 
0.040500 0.103904 0.086762 -0.441029 1.686097 5.973650 
0.041000 0.103910 0.086881 -0.232103 1.719340 5.831328 
0.041500 0.103904 0.086762 0.719540 1.325999 5.980759 
0.042000 0.103904 0.086762 0.112531 1.700110 6.027659 
0.042500 0.103904 0.086762 0.000000 2.127556 5.912015 
0.043000 0.103904 0.086762 0.000000 2.127556 5.912015 
0.043500 0.103904 0.086762 0.717017 1.857774 5.909994 
0.044000 0.103898 0.086642 0.822469 1.934309 5.876852 
0.044500 0.103898 0.086642 0.617230 2.598842 5.600998 
0.045000 0.103892 0.086522 1.713288 2.816695 5.294989 
0.045500 0.103880 0.086283 2.089801 2.391151 5.359332 
0.046000 0.103873 0.086163 1.295651 2.804265 5.458342 
0.046500 0.103867 0.086043 1.358586 3.037986 5.316747 
0.047000 0.103861 0.085923 1.369478 2.523446 5.588843 
0.047500 0.103855 0.085804 1.837219 2.477494 5.448904 
0.048000 0.103843 0.085564 2.090076 2.389237 5.360169 
0.048500 0.103836 0.085444 1.616647 2.327362 5.592662 
0.049000 0.103830 0.085325 1.738719 2.346116 5.435936 
0.049500 0.103818 0.085085 1.994476 2.227447 5.481591 
0.050000 0.103812 0.084965 1.534604 2.271325 5.641917 
0.050500 0.103805 0.084846 1.792590 1.954550 5.639480 
0.051000 0.103793 0.084606 2.106549 1.812232 5.537189 
0.051500 0.103787 0.084486 1.369863 2.519958 5.590322 
0.052000 0.103781 0.084367 1.368995 2.519543 5.590721 
0.052500 0.103775 0.084247 1.903566 2.519505 5.398851 
0.053000 0.103762 0.084008 2.652955 2.509298 5.102013 
0.053500 0.103750 0.083768 2.902526 2.279305 5.031728 
0.054000 0.103731 0.083409 3.092171 2.160800 4.998536 
0.054500 0.103719 0.083169 2.527830 2.223943 5.291627 
0.055000 0.103707 0.082930 3.037280 2.476593 4.868007 
0.055500 0.103688 0.082571 3.663318 2.431879 4.446527 
0.056000 0.103663 0.082092 3.867515 2.328797 4.356410 
0.056500 0.103645 0.081732 3.661397 2.431952 4.447547 
0.057000 0.103620 0.081253 4.138347 2.279547 4.140968 
0.057500 0.103596 0.080775 4.176910 2.497545 3.942787 
0.058000 0.103565 0.080176 4.219808 2.167644 4.046435 
0.058500 0.103546 0.079817 3.798249 2.408307 4.196507 
0.059000 0.103515 0.079218 4.650949 1.615873 3.861008 
0.059500 0.103484 0.078619 4.430747 2.076751 3.908872 
0.060000 0.103460 0.078140 4.138663 2.276011 4.142590 
0.060500 0.103435 0.077661 4.199752 2.502595 3.913930 
0.061000 0.103404 0.077063 4.486338 2.165643 3.815548 
0.061500 0.103379 0.076584 4.355777 2.104879 3.892891 
0.062000 0.103342 0.075865 4.415811 1.921048 3.880926 
0.062500 0.103324 0.075506 3.749896 2.663198 4.126433 
0.063000 0.103293 0.074907 4.453607 2.588188 3.585517 
0.063500 0.103262 0.074308 4.453881 2.587778 3.585573 
0.064000 0.103231 0.073710 4.304046 2.663588 3.709373 
0.064500 0.103207 0.073231 4.095646 2.914759 3.581840 
0.065000 0.103169 0.072512 4.717526 2.400298 3.378645 
0.065500 0.103139 0.071914 4.453521 2.584722 3.587930 
0.066000 0.103108 0.071315 4.579950 2.523808 3.456775 
0.066500 0.103071 0.070597 4.742489 2.415521 3.332704 
0.067000 0.103040 0.069998 4.364835 3.094986 3.183775 
0.067500 0.102997 0.069160 5.058630 2.394541 2.853038 
0.068000 0.102953 0.068322 4.907908 2.219596 3.189410 
0.068500 0.102922 0.067723 4.707925 2.344104 3.369982 
0.069000 0.102885 0.067004 4.594258 2.969187 2.866146 
0.069500 0.102836 0.066046 5.137282 2.520119 2.588116 
0.070000 0.102787 0.065089 5.078664 2.749818 2.473317 
0.070500 0.102737 0.064131 5.116500 2.813826 2.037183 
0.071000 0.102663 0.062694 4.099727 3.801671 0.828784 
0.071500 0.102361 0.056826 4.975359 1.836107 0.925635 
0.072000 0.102286 0.055390 4.218322 2.465897 1.631340 
0.072500 0.102243 0.054551 5.103084 2.666788 2.158610 
0.073000 0.102206 0.053833 2.202167 1.085974 1.476555 
-0.048250 0.100657 0.017683 -4.484658 1.059849 0.763368 
-0.047750 0.100820 0.020227 -5.831057 2.040484 1.132683 
-0.047250 0.100968 0.022516 -5.929939 1.750153 0.942243 
-0.046750 0.101180 0.025823 -4.932980 -0.594653 2.219747 
-0.046250 0.101229 0.026586 -4.360088 1.160202 4.034014 
-0.045750 0.101246 0.026840 -4.257268 0.512611 3.305862 
-0.045250 0.101377 0.028875 -5.454974 2.130205 2.158594 
-0.044750 0.101434 0.029765 -5.190512 2.466241 2.522622 
-0.044250 0.101499 0.030782 -5.210836 2.650730 2.294517 
-0.043750 0.101573 0.031927 -5.129625 2.553184 2.543982 
-0.043250 0.101622 0.032690 -4.289985 2.973332 3.431587 
-0.042750 0.101655 0.033199 -4.620721 2.829590 3.045328 
-0.042250 0.101712 0.034089 -4.895427 2.379567 3.093037 
-0.041750 0.101761 0.034852 -4.360353 2.228624 3.767886 
-0.041250 0.101785 0.035234 -4.547061 2.187694 3.335245 
-0.040750 0.101859 0.036378 -5.168263 1.298050 3.042758 
-0.040250 0.101908 0.037141 -4.586087 1.745020 3.646342 
-0.039750 0.101941 0.037650 -4.295795 2.429963 3.852016 
-0.039250 0.101974 0.038159 -3.387222 2.417554 4.538198 
-0.038750 0.101990 0.038413 -3.601160 2.258559 4.548375 
-0.038250 0.102023 0.038922 -4.257678 1.957510 4.171755 
-0.037750 0.102055 0.039430 -3.851301 2.029536 4.421251 
-0.037250 0.102080 0.039812 -3.285529 1.703658 4.955275 
-0.036750 0.102096 0.040066 -3.713672 2.008824 4.476151 
-0.036250 0.102129 0.040575 -4.133903 1.913528 4.316186 
-0.035750 0.102162 0.041084 -4.020041 2.129675 4.302690 
-0.035250 0.102186 0.041465 -4.068797 1.963384 4.323591 
-0.034750 0.102219 0.041974 -3.236516 1.841210 4.875272 
-0.034250 0.102235 0.042228 -3.408694 2.405579 4.660793 
-0.033750 0.102260 0.042610 -2.950701 2.375636 4.967555 
-0.033250 0.102276 0.042864 -2.736264 2.693285 4.969345 
-0.032750 0.102293 0.043118 -2.785625 2.533422 5.018236 
-0.032250 0.102309 0.043373 -1.946579 2.512381 5.391920 
-0.031750 0.102317 0.043500 -2.199968 2.418221 5.296836 
-0.031250 0.102334 0.043754 -1.947045 2.512202 5.391554 
-0.030750 0.102342 0.043881 -1.367620 2.180393 5.712844 
-0.030250 0.102350 0.044009 -1.655381 1.831235 5.767470 
-0.029750 0.102358 0.044136 -1.436606 2.262481 5.668284 
-0.029250 0.102366 0.044263 -2.891187 2.483672 4.689772 
-0.028750 0.102399 0.044772 -3.882600 2.554656 4.214654 
-0.028250 0.102423 0.045153 -3.419284 2.974942 4.323883 
-0.027750 0.102448 0.045535 -3.233116 3.396112 4.177522 
-0.027250 0.102473 0.045916 -2.741644 3.869815 4.086407 
-0.026750 0.102489 0.046171 -2.259295 3.851253 4.410351 
-0.026250 0.102505 0.046425 -3.075553 3.368530 4.275254 
-0.025750 0.102530 0.046806 -3.375945 2.962098 4.389894 
-0.025250 0.102554 0.047188 -4.223141 2.225438 3.978513 
-0.024750 0.102595 0.047824 -4.827025 1.248469 3.808899 
-0.024250 0.102632 0.048445 -4.195628 1.315645 4.412626 
-0.023750 0.102650 0.048804 -3.737521 1.051857 4.930340 
-0.023250 0.102669 0.049163 -3.067209 0.928981 5.385215 
-0.022750 0.102681 0.049403 -2.763196 1.330721 5.467213 
-0.022250 0.102693 0.049642 -1.921449 1.498715 5.765619 
-0.021750 0.102699 0.049762 -1.436861 1.529791 5.922297 
-0.021250 0.102705 0.049882 -1.436862 1.530368 5.922146 
-0.020750 0.102711 0.050001 -0.718073 1.296073 6.057632 
-0.020250 0.102711 0.050001 -0.718158 1.296228 6.057438 
-0.019750 0.102717 0.050121 -1.436850 1.530685 5.922067 
-0.019250 0.102723 0.050241 -1.437932 1.530802 5.921774 
-0.018750 0.102730 0.050361 -1.358810 2.152661 5.731313 
-0.018250 0.102736 0.050480 -2.779380 2.587538 4.664542 
-0.017750 0.102760 0.050959 -2.914181 2.622929 4.766799 
-0.017250 0.102772 0.051199 -2.973415 3.207236 4.488022 
-0.016750 0.102790 0.051558 -3.465996 3.366808 3.997609 
-0.016250 0.102815 0.052037 -3.774278 3.159586 3.896260 
-0.015750 0.102839 0.052516 -3.845468 3.277089 3.732008 
-0.015250 0.102864 0.052995 -3.459601 3.150430 4.152958 
-0.014750 0.102882 0.053354 -4.068826 2.884681 3.719195 
-0.014250 0.102919 0.054073 -4.198752 2.760186 3.657611 
-0.013750 0.102943 0.054552 -4.048290 3.016926 3.731674 
-0.013250 0.102967 0.055030 -4.333982 2.688784 3.578507 
-0.012750 0.103004 0.055749 -4.627141 2.555292 3.389103 
-0.012250 0.103034 0.056348 -3.844877 2.961187 3.946063 
-0.011750 0.103053 0.056707 -3.258253 3.096987 4.376351 
-0.011250 0.103071 0.057066 -2.829223 2.824939 4.824785 
-0.010750 0.103083 0.057305 -3.564658 2.894496 3.990977 
-0.010250 0.103120 0.058024 -4.136804 2.826353 3.690362 
-0.009750 0.103144 0.058503 -3.757628 2.817330 4.132842 
-0.009250 0.103162 0.058862 -3.747833 2.940536 3.983480 
-0.008750 0.103187 0.059341 -3.297559 3.313574 4.184970 
-0.008250 0.103205 0.059700 -3.992067 3.468183 3.105221 
-0.007750 0.103260 0.060778 -4.633103 2.196727 3.373395 
-0.007250 0.103284 0.061257 -3.756996 2.597271 4.277109 
-0.006750 0.103303 0.061616 -3.648406 2.823060 4.246870 
-0.006250 0.103327 0.062095 -3.957203 2.601074 4.118578 
-0.005750 0.103351 0.062574 -4.152151 2.558132 3.955209 
-0.005250 0.103376 0.063053 -2.540474 2.191103 5.032882 
-0.004750 0.103382 0.063173 -2.204012 2.256860 5.384346 
-0.004250 0.103394 0.063412 -2.564261 2.298409 5.237152 
-0.003750 0.103406 0.063652 -3.093738 1.838681 5.079101 
-0.003250 0.103425 0.064011 -3.852783 1.775613 4.573062 
-0.002750 0.103449 0.064490 -3.868071 1.481251 4.705867 
-0.002250 0.103467 0.064849 -3.919444 1.093657 4.770644 
-0.001750 0.103492 0.065328 -2.594351 1.471511 5.111466 
-0.001250 0.103498 0.065448 -1.595361 2.306802 5.605671 
-0.000750 0.103504 0.065568 -2.123759 2.606275 5.200113 
-0.000250 0.103516 0.065807 -2.300927 2.634171 5.207350 
0.000250 0.103528 0.066046 -3.818435 1.941344 4.186015 
0.000750 0.103559 0.066645 -4.995399 0.615579 3.493655 
0.001250 0.103601 0.067483 -4.964768 -0.296645 3.822824 
0.001750 0.103632 0.068082 -3.322802 -0.414572 4.923471 
0.002250 0.103644 0.068322 -3.430814 1.266792 5.031042 
0.002750 0.103662 0.068681 -3.075637 1.214969 5.315197 
0.003250 0.103674 0.068920 -3.278708 0.904684 5.229776 
0.003750 0.103693 0.069279 -3.698198 0.287724 5.054938 
0.004250 0.103711 0.069639 -4.246577 0.153790 4.442123 
0.004750 0.103742 0.070237 -4.025970 0.031010 4.749673 
0.005250 0.103760 0.070597 -3.759692 -0.216214 5.020116 
0.005750 0.103778 0.070956 -3.720479 -0.053224 5.045745 
0.006250 0.103796 0.071315 -3.669145 -0.575882 5.054281 
0.006750 0.103815 0.071674 -4.213052 -1.025247 4.398604 
0.007250 0.103845 0.072273 -4.275305 -1.317192 4.395231 
0.007750 0.103870 0.072752 -3.756463 -1.225201 4.782000 
0.008250 0.103888 0.073111 -3.642504 -0.308882 5.086712 
0.008750 0.103906 0.073470 -3.656919 0.002177 5.090062 
0.009250 0.103924 0.073829 -3.759913 -0.216666 5.019892 
0.009750 0.103943 0.074189 -3.996263 -0.220333 4.817704 
0.010250 0.103967 0.074668 -3.795101 -0.381672 4.891512 
0.010750 0.103985 0.075027 -3.199576 -0.295038 5.297679 
0.011250 0.103998 0.075266 -2.655372 0.190385 5.672005 
0.011750 0.104010 0.075506 -2.790356 0.910428 5.552030 
0.012250 0.104022 0.075745 -1.022129 1.011827 5.832341 
0.012750 0.104022 0.075745 -0.992485 1.499835 5.994995 
0.013250 0.104028 0.075865 -1.353030 2.206291 5.711758 
0.013750 0.104034 0.075985 -1.533631 2.251824 5.650184 
0.014250 0.104040 0.076104 -1.402267 2.035966 5.755336 
0.014750 0.104046 0.076224 -1.402833 2.036361 5.755006 
0.015250 0.104052 0.076344 -2.142672 2.153125 5.284770 
0.015750 0.104065 0.076583 -2.339896 2.206762 5.340228 
0.016250 0.104077 0.076823 -3.104361 2.357803 4.748637 
0.016750 0.104095 0.077182 -2.680354 2.600631 5.033088 
0.017250 0.104107 0.077422 -1.933369 2.620405 5.336357 
0.017750 0.104113 0.077541 -2.627988 3.024354 4.492188 
0.018250 0.104138 0.078020 -2.955330 3.786932 3.993916 
0.018750 0.104150 0.078260 -3.296036 3.768278 3.101830 
0.019250 0.104199 0.079218 -4.022021 4.482913 1.728459 
0.019750 0.104260 0.080415 -3.703842 4.832153 1.489227 
0.020250 0.104315 0.081493 -3.572747 4.329298 2.568078 
0.020750 0.104339 0.081972 -3.443628 4.110781 3.254266 
0.021250 0.104363 0.082451 -3.252032 3.954340 3.618487 
0.021750 0.104382 0.082810 -2.810809 4.112373 3.822263 
0.022250 0.104400 0.083169 -2.339918 4.290978 3.866983 
0.022750 0.104412 0.083408 -2.033632 4.534142 3.827093 
0.023250 0.104424 0.083648 -1.937377 4.604861 3.802600 
0.023750 0.104437 0.083888 -2.052187 4.486680 3.887718 
0.024250 0.104449 0.084127 -1.550131 4.424376 4.154104 
0.024750 0.104455 0.084247 -2.050060 4.323489 3.912434 
0.025250 0.104473 0.084606 -1.738873 4.233569 4.201605 
0.025750 0.104479 0.084726 -1.644905 4.363118 4.187520 
0.026250 0.104491 0.084965 -2.143027 4.289192 4.052877 
0.026750 0.104504 0.085205 -1.454372 4.180154 4.420782 
0.027250 0.104510 0.085324 -1.310191 4.213443 4.467923 
0.027750 0.104516 0.085444 -1.622338 4.282566 4.207866 
0.028250 0.104528 0.085684 -1.528629 4.283714 4.316441 
0.028750 0.104534 0.085803 -1.088488 3.999575 4.718460 
0.029250 0.104540 0.085923 -1.185583 3.934136 4.753460 
0.029750 0.104546 0.086043 -0.592698 3.823368 4.911449 
0.030250 0.104546 0.086043 -0.592626 3.822953 4.911414 
0.030750 0.104552 0.086163 -0.482210 3.958385 4.798798 
0.031250 0.104552 0.086163 -0.628513 4.288162 4.517805 
0.031750 0.104558 0.086282 0.238364 3.997438 4.602209 
0.032250 0.104552 0.086163 1.133463 4.209207 4.492344 
0.032750 0.104546 0.086043 1.948161 4.025389 4.210029 
0.033250 0.104528 0.085684 1.765007 3.978418 4.207280 
0.033750 0.104522 0.085564 -0.228017 3.854303 4.283055 
0.034250 0.104528 0.085684 -0.510566 3.364967 5.052268 
0.034750 0.104528 0.085684 -1.168776 2.304371 5.089084 
0.035250 0.104540 0.085923 -1.836407 1.919117 5.618640 
0.035750 0.104546 0.086043 -1.958702 1.657247 5.537197 
0.036250 0.104558 0.086282 -1.809559 1.641842 5.767968 
0.036750 0.104565 0.086402 -0.717699 1.346444 6.046212 
0.037250 0.104565 0.086402 -1.029961 1.765608 5.710852 
0.037750 0.104571 0.086522 -0.453227 1.696182 5.999661 
0.038250 0.104571 0.086522 -0.851616 1.535398 5.871130 
0.038750 0.104577 0.086641 -0.453156 1.183904 6.128603 
0.039250 0.104577 0.086641 0.000000 1.104617 6.185325 
0.039750 0.104577 0.086641 -0.280260 1.259266 6.100392 
0.040250 0.104577 0.086641 0.281440 0.913421 6.192633 
0.040750 0.104577 0.086641 0.000000 1.104617 6.185324 
0.041250 0.104577 0.086641 -0.111351 1.533968 6.072328 
0.041750 0.104577 0.086641 0.112532 1.188123 6.164568 
0.042250 0.104577 0.086641 0.881653 1.072816 6.051835 
0.042750 0.104571 0.086522 0.454387 1.525658 6.014581 
0.043250 0.104571 0.086522 0.161964 1.874587 5.983046 
0.043750 0.104571 0.086522 0.717126 1.857700 5.909662 
0.044250 0.104565 0.086402 1.567521 1.805183 5.800528 
0.044750 0.104558 0.086282 1.905923 2.165194 5.526872 
0.045250 0.104546 0.086043 1.870256 2.565137 5.328314 
0.045750 0.104540 0.085923 1.317508 2.369930 5.649840 
0.046250 0.104534 0.085803 2.159422 1.977010 5.534160 
0.046750 0.104522 0.085564 1.064877 2.522757 5.356374 
0.047250 0.104522 0.085564 1.039332 2.788590 5.493289 
0.047750 0.104516 0.085444 1.932465 2.606565 5.278787 
0.048250 0.104504 0.085205 1.839695 2.476490 5.448748 
0.048750 0.104497 0.085085 1.996783 2.225648 5.481879 
0.049250 0.104485 0.084845 1.738853 2.344909 5.436164 
0.049750 0.104479 0.084726 1.613608 2.326417 5.593699 
0.050250 0.104473 0.084606 1.368878 2.521133 5.590034 
0.050750 0.104467 0.084486 1.369720 2.519480 5.590573 
0.051250 0.104461 0.084366 2.200117 1.972588 5.417041 
0.051750 0.104449 0.084127 1.765291 2.420881 5.500879 
0.052250 0.104443 0.084007 1.369009 2.519548 5.590717 
0.052750 0.104437 0.083888 2.569749 2.075222 5.158956 
0.053250 0.104418 0.083528 2.855316 2.243451 5.079824 
0.053750 0.104406 0.083289 3.152279 2.204780 4.949070 
0.054250 0.104388 0.082930 2.278557 2.538735 5.092410 
0.054750 0.104382 0.082810 2.712206 2.249278 4.998268 
0.055250 0.104363 0.082451 3.733829 2.166024 4.480218 
0.055750 0.104339 0.081972 4.081308 2.242163 4.217022 
0.056250 0.104315 0.081493 3.724775 2.556246 4.336903 
0.056750 0.104296 0.081133 3.763579 2.647306 4.239243 
0.057250 0.104272 0.080655 4.300995 2.295434 3.897053 
0.057750 0.104241 0.080056 4.176914 2.496979 3.943159 
0.058250 0.104217 0.079577 4.136902 2.278959 4.142706 
0.058750 0.104193 0.079098 3.597452 2.831284 4.231857 
0.059250 0.104174 0.078739 4.341850 1.918453 3.789660 
0.059750 0.104138 0.078020 4.409314 2.132850 3.906699 
0.060250 0.104113 0.077541 4.430888 2.075121 3.910475 
0.060750 0.104083 0.076943 4.520772 2.306672 3.703265 
0.061250 0.104052 0.076344 4.198593 2.500564 3.915759 
0.061750 0.104028 0.075865 4.366025 2.381195 3.830718 
0.062250 0.103998 0.075266 4.354307 2.302062 3.890567 
0.062750 0.103973 0.074787 4.456975 2.390083 3.627527 
0.063250 0.103937 0.074069 4.564699 2.522867 3.478928 
0.063750 0.103906 0.073470 4.452323 2.587682 3.587174 
0.064250 0.103876 0.072871 4.453787 2.584812 3.587779 
0.064750 0.103845 0.072273 4.341198 2.816825 3.517504 
0.065250 0.103815 0.071674 4.468393 2.590441 3.564020 
0.065750 0.103784 0.071075 4.453764 2.582754 3.588867 
0.066250 0.103754 0.070477 4.733617 2.455593 3.311441 
0.066750 0.103717 0.069758 4.915716 2.300459 3.122659 
0.067250 0.103674 0.068920 4.835426 2.618275 2.949583 
0.067750 0.103638 0.068202 4.683366 2.826442 3.090853 
0.068250 0.103601 0.067483 4.515630 2.788449 3.354966 
0.068750 0.103571 0.066885 5.092073 1.981231 2.742063 
0.069250 0.103510 0.065687 4.731400 3.068752 2.538713 
0.069750 0.103473 0.064969 4.992740 2.641760 2.618527 
0.070250 0.103418 0.063891 5.512238 2.065729 2.149554 
0.070750 0.103351 0.062574 5.809499 0.862492 1.000748 
0.071250 0.103065 0.056946 4.172971 3.883213 0.730991 
0.071750 0.102986 0.055390 4.067156 3.534013 2.447257 
0.072250 0.102961 0.054911 4.952007 1.435612 2.391134 
0.072750 0.102876 0.053234 2.144775 0.917012 0.796989 
-0.048500 0.101234 0.015396 -0.686170 0.055221 0.162203 
-0.048000 0.101420 0.018321 -5.888833 1.776949 1.010853 
-0.047500 0.101542 0.020228 -5.923063 1.511535 1.316798 
-0.047000 0.101728 0.023153 -5.979009 1.676560 0.879519 
-0.046500 0.101906 0.025951 -5.611804 1.476758 2.065190 
-0.046000 0.101955 0.026714 -5.103982 -0.011732 3.604963 
-0.045500 0.102011 0.027604 -5.726533 0.420337 2.459904 
-0.045000 0.102084 0.028749 -5.415256 1.719287 2.628962 
-0.044500 0.102141 0.029639 -5.259375 2.088093 2.709065 
-0.044000 0.102198 0.030529 -5.264850 2.091463 2.571374 
-0.043500 0.102279 0.031801 -4.896115 2.575759 2.771111 
-0.043000 0.102311 0.032310 -4.298201 2.736519 3.570489 
-0.042500 0.102360 0.033073 -4.885362 2.607152 2.960366 
-0.042000 0.102408 0.033836 -4.960987 2.643413 2.787882 
-0.041500 0.102465 0.034726 -4.760269 1.895044 3.552863 
-0.041000 0.102497 0.035234 -4.856354 1.837069 3.391856 
-0.040500 0.102562 0.036252 -4.902090 2.601842 2.857119 
-0.040000 0.102603 0.036888 -4.286049 2.851110 3.588773 
-0.039500 0.102635 0.037396 -4.078160 2.865081 3.826008 
-0.039000 0.102668 0.037905 -3.814128 2.660119 4.191635 
-0.038500 0.102692 0.038287 -3.952342 2.189946 4.344498 
-0.038000 0.102724 0.038795 -4.012377 2.316496 4.230068 
-0.037500 0.102749 0.039177 -3.732934 2.498293 4.359947 
-0.037000 0.102781 0.039685 -3.769958 2.357336 4.345338 
-0.036500 0.102805 0.040067 -3.793451 2.171772 4.474425 
-0.036000 0.102830 0.040448 -3.875408 2.267695 4.377837 
-0.035500 0.102862 0.040957 -4.115812 2.443768 4.039148 
-0.035000 0.102894 0.041466 -3.704984 2.270777 4.381214 
-0.034500 0.102911 0.041720 -3.045796 2.292400 4.938100 
-0.034000 0.102935 0.042102 -3.295885 2.213410 4.849216 
-0.033500 0.102951 0.042356 -2.691266 2.362825 5.142887 
-0.033000 0.102967 0.042610 -2.950082 2.376274 4.967698 
-0.032500 0.102991 0.042992 -2.611318 2.465667 4.979777 
-0.032000 0.103000 0.043119 -1.948601 2.510835 5.392078 
-0.031500 0.103016 0.043373 -2.198604 2.416813 5.298615 
-0.031000 0.103024 0.043501 -1.570210 2.473919 5.553343 
-0.030500 0.103032 0.043628 -1.861933 2.125896 5.553175 
-0.030000 0.103048 0.043882 -1.588498 2.124758 5.494944 
-0.029500 0.103048 0.043882 -1.212631 1.786426 5.662568 
-0.029000 0.103064 0.044136 -3.429013 2.174004 4.703425 
-0.028500 0.103097 0.044645 -3.477151 2.599753 4.410176 
-0.028000 0.103113 0.044899 -2.699608 2.913285 4.862195 
-0.027500 0.103129 0.045154 -2.489105 3.319246 4.690061 
-0.027000 0.103145 0.045408 -2.483731 3.676551 4.422243 
-0.026500 0.103162 0.045662 -3.044673 3.234174 4.258233 
-0.026000 0.103194 0.046171 -4.029029 2.651246 3.999379 
-0.025500 0.103218 0.046553 -3.998181 1.576613 4.310826 
-0.025000 0.103259 0.047189 -4.883069 1.420687 3.668953 
-0.024500 0.103307 0.047952 -4.752588 1.690744 3.613234 
-0.024000 0.103336 0.048445 -4.160830 1.433601 4.472153 
-0.023500 0.103360 0.048924 -3.482929 1.374545 4.826914 
-0.023000 0.103372 0.049164 -2.664739 1.412012 5.492361 
-0.022500 0.103384 0.049403 -2.179495 1.442583 5.649320 
-0.022000 0.103390 0.049523 -1.546192 1.442907 5.912422 
-0.021500 0.103396 0.049643 -1.340705 1.109860 6.018525 
-0.021000 0.103402 0.049762 -1.436752 1.529866 5.922303 
-0.020500 0.103408 0.049882 -0.718083 1.295276 6.057736 
-0.020000 0.103408 0.049882 -0.718544 1.295262 6.057627 
-0.019500 0.103414 0.050002 -1.324619 1.616593 5.921160 
-0.019000 0.103420 0.050122 -0.957491 1.916805 5.847488 
-0.018500 0.103420 0.050122 -1.051705 1.790365 5.738649 
-0.018000 0.103432 0.050361 -2.628153 2.660084 5.021902 
-0.017500 0.103444 0.050600 -2.465445 3.275631 4.757377 
-0.017000 0.103456 0.050840 -2.732210 3.112736 4.671504 
-0.016500 0.103474 0.051199 -3.465169 3.365687 3.999570 
-0.016000 0.103498 0.051678 -3.844538 3.274082 3.735498 
-0.015500 0.103522 0.052157 -3.857440 3.083700 3.872321 
-0.015000 0.103546 0.052636 -3.824974 3.019969 3.956881 
-0.014500 0.103570 0.053115 -4.037851 3.012379 3.734415 
-0.014000 0.103600 0.053714 -4.068540 3.445314 3.309095 
-0.013500 0.103631 0.054312 -4.235870 3.119883 3.390704 
-0.013000 0.103661 0.054911 -4.602761 2.724530 3.273290 
-0.012500 0.103697 0.055629 -4.417575 2.614905 3.553772 
-0.012000 0.103721 0.056108 -3.650871 2.810580 4.252861 
-0.011500 0.103739 0.056468 -3.348677 2.797170 4.521131 
-0.011000 0.103757 0.056827 -2.926865 2.743626 4.808454 
-0.010500 0.103769 0.057066 -3.461838 2.810641 4.232295 
-0.010000 0.103799 0.057665 -4.188884 3.079169 3.523128 
-0.009500 0.103829 0.058264 -3.924781 3.059557 3.760196 
-0.009000 0.103853 0.058743 -3.297877 3.093060 4.150990 
-0.008500 0.103865 0.058982 -2.415264 3.476520 4.638393 
-0.008000 0.103877 0.059221 -3.736849 3.198237 3.168394 
-0.007500 0.103949 0.060658 -4.497495 2.417750 3.211034 
-0.007000 0.103968 0.061018 -3.348405 2.806608 4.515478 
-0.006500 0.103986 0.061377 -3.646814 2.823477 4.247846 
-0.006000 0.104010 0.061856 -4.199136 2.705678 3.793367 
-0.005500 0.104040 0.062454 -3.995692 2.401723 4.144746 
-0.005000 0.104058 0.062814 -2.831192 2.596503 4.920842 
-0.004500 0.104070 0.063053 -2.668584 2.213484 5.225255 
-0.004000 0.104082 0.063293 -2.988245 1.840872 5.192424 
-0.003500 0.104100 0.063652 -3.560818 1.703338 4.870781 
-0.003000 0.104118 0.064011 -3.963160 1.744348 4.536450 
-0.002500 0.104142 0.064490 -3.852443 1.490530 4.702972 
-0.002000 0.104160 0.064849 -3.185925 2.013589 4.966873 
